# .PCD v0.7 - Point Cloud Data file format
VERSION 0.7
FIELDS x y z intensity
SIZE 4 4 4 4
TYPE F F F F
COUNT 1 1 1 1
WIDTH 1340
HEIGHT 1
VIEWPOINT 0 0 0 1 0 0 0
POINTS 1340
DATA ascii
23.949057 -12.877143 -0.037839223 0
24.055641 -12.835287 -0.03859067 0
24.365566 -12.88951 -0.039505713 0
24.419685 -12.833323 -0.036984239 0
24.786341 -12.894655 -0.035555877 0
24.870962 -12.858284 -0.038502876 0
24.973236 -12.852835 -0.036847327 0
25.023672 -12.80484 -0.037702989 0
25.173038 -12.864751 -0.023107328 0
25.284964 -12.834928 -0.022538368 0
25.33452 -12.840088 -0.025513697 0
25.438776 -12.863503 -0.035840966 0
25.555191 -12.849971 -0.036711313 0
25.607271 -12.81209 -0.04006749 0
25.747541 -12.84219 -0.03743577 0
25.889555 -12.837875 -0.038596086 0
25.950012 -12.849234 -0.03685528 0
26.080872 -12.870564 -0.036631986 0
26.149456 -12.852186 -0.038245704 0
26.259819 -12.852043 -0.03768038 0
26.324417 -12.86101 -0.03770712 0
26.556469 -12.831491 -0.037028793 0
26.638744 -12.847721 -0.036265653 0
26.754374 -12.845618 -0.039685752 0
26.843752 -12.827414 -0.035746522 0
26.971601 -12.81767 -0.03831875 0
27.021204 -12.819108 -0.034962848 0
27.151104 -12.838094 -0.040085826 0
27.211884 -12.845989 -0.036458228 0
27.391563 -12.865467 -0.036579065 0
27.452808 -12.834564 -0.037204422 0
27.544764 -12.838974 -0.035943698 0
27.754673 -12.841919 -0.036720246 0
27.816467 -12.851389 -0.036121707 0
27.934906 -12.846709 -0.036948893 0
28.075829 -12.855452 -0.036893275 0
28.154383 -12.836387 -0.037180796 0
28.25898 -12.852735 -0.034972548 0
28.336533 -12.855155 -0.037682977 0
28.556572 -12.83568 -0.036786586 0
28.633654 -12.853129 -0.037056547 0
28.740011 -12.839126 -0.036344603 0
28.853258 -12.848137 -0.037063513 0
28.953495 -12.802217 -0.036948282 0
29.034702 -12.863149 -0.034289882 0
29.135071 -12.840241 -0.037018832 0
29.243147 -12.847444 -0.037523512 0
29.454437 -12.841046 -0.038318291 0
29.567072 -12.844974 -0.037771493 0
29.61273 -12.862912 -0.036859356 0
29.716331 -12.843079 -0.034695521 0
29.86829 -12.82645 -0.038416758 0
29.944176 -12.858766 -0.036708113 0
30.05002 -12.843289 -0.037456442 0
30.149317 -12.854216 -0.038188267 0
30.370201 -12.856705 -0.03860788 0
30.418259 -12.846598 -0.038473878 0
30.542484 -12.835341 -0.035800625 0
30.617878 -12.850076 -0.038104825 0
30.730164 -12.85498 -0.037222907 0
30.88138 -12.83491 -0.035982918 0
30.947702 -12.850121 -0.036534388 0
31.05979 -12.823383 -0.03788688 0
31.149986 -12.889479 -0.037930056 0
31.258972 -12.837449 -0.03700773 0
31.339539 -12.842395 -0.037918556 0
31.447824 -12.867296 -0.03542947 0
31.660872 -12.82874 -0.037282538 0
31.757511 -12.877382 -0.03852918 0
31.863152 -12.858174 -0.035177208 0
31.958878 -12.858925 -0.037014905 0
32.087811 -12.810701 -0.03791381 0
32.134182 -12.81909 -0.037027657 0
32.366478 -12.835041 -0.036605217 0
32.400669 -12.872343 -0.040504456 0
32.591602 -12.842312 -0.037068501 0
32.762897 -12.850479 -0.037243325 0
32.834541 -12.832277 -0.037139609 0
33.052826 -12.846561 -0.038590491 0
33.240234 -12.841087 -0.03524052 0
33.434479 -12.846253 -0.03783375 0
33.545464 -12.82341 -0.036797613 0
33.631321 -12.854325 -0.03867669 0
33.764641 -12.865637 -0.03817486 0
33.851082 -12.858021 -0.038301714 0
33.958302 -12.851616 -0.036429074 0
34.030636 -12.801421 -0.036992356 0
34.151676 -12.843943 -0.037912562 0
34.257324 -12.86399 -0.035332352 0
34.335506 -12.839676 -0.037832838 0
34.545052 -12.849368 -0.038249265 0
34.728626 -12.853744 -0.03654762 0
34.87727 -12.849322 -0.037464023 0
34.973019 -12.898639 -0.039045703 0
35.026684 -12.833737 -0.035983406 0
35.125565 -12.849062 -0.039387006 0
35.255901 -12.844043 -0.037447907 0
35.443253 -12.860591 -0.036576252 0
35.553577 -12.846284 -0.037814744 0
35.637924 -12.853684 -0.037773855 0
35.731163 -12.853231 -0.037709087 0
35.828644 -12.836298 -0.038259387 0
35.955555 -12.858482 -0.03723577 0
36.118088 -12.846822 -0.037826277 0
36.204983 -12.845351 -0.037392832 0
36.418671 -12.840931 -0.035099253 0
36.655678 -12.859657 -0.038467556 0
36.857258 -12.849346 -0.036705885 0
37.057125 -12.848442 -0.038628526 0
37.124611 -12.882561 -0.037261464 0
37.392639 -12.807569 -0.036112949 0
37.58651 -12.824083 -0.03630979 0
37.644623 -12.83905 -0.038698226 0
37.792618 -12.847044 -0.038443856 0
37.924095 -12.858812 -0.037495367 0
38.138767 -12.851969 -0.0373374 0
38.232258 -12.816318 -0.037879605 0
38.363804 -12.864477 -0.037113886 0
38.420536 -12.858377 -0.03678992 0
38.575775 -12.878917 -0.036595762 0
38.613705 -12.803549 -0.037246998 0
39.391804 -12.858558 -0.037539057 0
39.664848 -12.828655 -0.038008224 0
39.914162 -12.800077 -0.035797361 0
40.36953 -12.868145 -0.036482286 0
40.462616 -12.855992 -0.03746799 0
40.738007 -12.817541 -0.038242951 0
41.213402 -12.885056 -0.037604939 0
41.330292 -12.849747 -0.038176183 0
41.476261 -12.824104 -0.037637353 0
41.863323 -12.852828 -0.037469592 0
42.330498 -12.883759 -0.036576439 0
43.471367 -12.854906 -0.03709498 0
43.678776 -12.870946 -0.037592653 0
44.286102 -12.899885 -0.037315227 0
45.029202 -12.851379 -0.037355334 0
45.241302 -12.847465 -0.038050253 0
46.046982 -12.828133 -0.03765237 0
46.328999 -12.874082 -0.038528852 0
47.132339 -12.815367 -0.037844256 0
12.827494 -12.719538 -0.028809272 0
13.028254 -12.774887 -0.016409624 0
14.891121 -12.784656 -0.037035987 0
15.34004 -12.775101 -0.036437709 0
15.556149 -12.738068 -0.037705217 0
16.174427 -12.723038 -0.035211351 0
16.663229 -12.734486 -0.035733365 0
17.041313 -12.76884 -0.0382348 0
17.233006 -12.756339 -0.037159875 0
17.648981 -12.722493 -0.036900755 0
17.933081 -12.729818 -0.037123106 0
18.163725 -12.722527 -0.037308671 0
18.258499 -12.76635 -0.036779277 0
18.372791 -12.764025 -0.039066143 0
18.456902 -12.767937 -0.037296332 0
18.503529 -12.758469 -0.038487613 0
18.769154 -12.736216 -0.034818307 0
19.254772 -12.744777 -0.038267486 0
19.528599 -12.767307 -0.036702637 0
19.623974 -12.701348 -0.03887634 0
19.702129 -12.735006 -0.03613684 0
19.861326 -12.732066 -0.033118341 0
19.966904 -12.751337 -0.03668062 0
20.154007 -12.726656 -0.036643602 0
20.267817 -12.753668 -0.032885171 0
20.365175 -12.7402 -0.037352428 0
20.437113 -12.781123 -0.037469253 0
20.676556 -12.746527 -0.039733395 0
20.751377 -12.745897 -0.036783017 0
20.837997 -12.795111 -0.038840614 0
20.969215 -12.745181 -0.03728202 0
21.054264 -12.768643 -0.038240317 0
21.137249 -12.755384 -0.037825219 0
21.251318 -12.752814 -0.036484107 0
21.333464 -12.749164 -0.03571469 0
21.4506 -12.743114 -0.038958944 0
21.54204 -12.755383 -0.037507202 0
21.631416 -12.753447 -0.036321059 0
21.77409 -12.737612 -0.035544291 0
21.861065 -12.783654 -0.038361438 0
21.967533 -12.754925 -0.040002793 0
22.061644 -12.735722 -0.03565111 0
22.154991 -12.733107 -0.037192624 0
22.24773 -12.747446 -0.036956344 0
22.334957 -12.751337 -0.040179092 0
22.45141 -12.758365 -0.037826419 0
22.535616 -12.74234 -0.037078124 0
22.647551 -12.75516 -0.038250383 0
22.770731 -12.747016 -0.038315389 0
23.174999 -12.737799 -0.036961094 0
23.226711 -12.766144 -0.037614636 0
23.359367 -12.748982 -0.036909826 0
23.431864 -12.731114 -0.0368977 0
23.642704 -12.788774 -0.03840071 0
23.744408 -12.752572 -0.036931153 0
23.800032 -12.708331 -0.038217522 0
24.046822 -12.747673 -0.037574645 0
24.162374 -12.772003 -0.037764568 0
24.246103 -12.723282 -0.0384847 0
24.473444 -12.772894 -0.036032535 0
24.527651 -12.72571 -0.037155882 0
24.950394 -12.775094 -0.037382185 0
25.040922 -12.73139 -0.036799908 0
25.183306 -12.784101 -0.010044131 0
25.251347 -12.722608 -0.018815177 0
25.332302 -12.780002 -0.02349573 0
25.474911 -12.766232 -0.035692263 0
25.547626 -12.749402 -0.037151098 0
25.651367 -12.733981 -0.037618853 0
25.759361 -12.738955 -0.036486752 0
25.930992 -12.741571 -0.036774628 0
26.153757 -12.747863 -0.037098382 0
26.274679 -12.764375 -0.036316596 0
26.364445 -12.753199 -0.035855763 0
26.422049 -12.729841 -0.03709681 0
26.542629 -12.733648 -0.035388805 0
26.638836 -12.780479 -0.037842691 0
26.761005 -12.758438 -0.038734727 0
26.840359 -12.760647 -0.037768945 0
26.978077 -12.724941 -0.037455004 0
27.150322 -12.738838 -0.038376551 0
27.298946 -12.769506 -0.039313883 0
27.367058 -12.725491 -0.036162257 0
27.466368 -12.748614 -0.036648486 0
27.539501 -12.754612 -0.038472667 0
27.62645 -12.721813 -0.034986187 0
27.742111 -12.756979 -0.036842983 0
27.848 -12.725529 -0.037198894 0
27.94278 -12.762481 -0.036955055 0
28.065184 -12.74733 -0.038783345 0
28.159372 -12.736267 -0.035330418 0
28.261948 -12.742641 -0.038492166 0
28.330196 -12.785368 -0.037074603 0
28.437801 -12.725403 -0.038421787 0
28.544128 -12.766392 -0.036177695 0
28.670776 -12.74764 -0.036063291 0
28.83416 -12.756248 -0.03774282 0
28.934061 -12.749781 -0.037828937 0
29.064766 -12.742706 -0.038906422 0
29.142385 -12.783471 -0.034067456 0
29.276987 -12.767223 -0.036278702 0
29.367254 -12.735929 -0.037505489 0
29.491177 -12.734156 -0.038392257 0
29.529692 -12.752652 -0.036744874 0
29.640484 -12.750571 -0.038894787 0
29.76701 -12.737425 -0.036161065 0
29.835428 -12.736401 -0.037222143 0
29.955599 -12.731728 -0.03736094 0
30.161346 -12.754285 -0.03717326 0
30.259077 -12.710019 -0.039429922 0
30.341867 -12.761611 -0.038150039 0
30.439734 -12.759595 -0.038568866 0
30.552601 -12.739271 -0.036011465 0
30.633469 -12.759828 -0.036768328 0
30.777065 -12.740307 -0.038832277 0
30.84831 -12.762914 -0.03730455 0
30.93734 -12.739451 -0.036863439 0
31.013258 -12.762504 -0.037714668 0
31.263153 -12.73699 -0.037293658 0
31.340425 -12.748791 -0.037519448 0
31.475977 -12.722326 -0.036510587 0
31.545567 -12.764343 -0.03773655 0
31.664854 -12.748154 -0.036867086 0
31.944473 -12.749876 -0.03556769 0
32.155453 -12.73635 -0.038279086 0
32.370857 -12.731365 -0.038582202 0
32.408253 -12.740398 -0.039399929 0
32.588642 -12.766665 -0.036171854 0
32.601547 -12.715826 -0.039875001 0
32.779125 -12.772416 -0.037912525 0
32.832493 -12.749179 -0.037645549 0
33.052296 -12.731673 -0.037286706 0
33.274357 -12.763335 -0.039104167 0
33.301601 -12.714594 -0.038438566 0
33.458099 -12.749972 -0.037970919 0
33.543438 -12.744236 -0.035857946 0
33.67432 -12.744736 -0.038226783 0
33.755116 -12.738477 -0.038635552 0
33.870556 -12.748133 -0.035877571 0
33.942253 -12.753717 -0.037583053 0
34.06966 -12.736493 -0.035274327 0
34.169247 -12.753797 -0.037016213 0
34.232689 -12.749611 -0.037820995 0
34.372162 -12.778849 -0.036351688 0
34.452961 -12.76033 -0.038154479 0
34.551968 -12.745907 -0.037479445 0
34.620556 -12.730872 -0.03850865 0
34.742893 -12.782503 -0.036051683 0
34.813866 -12.743382 -0.038193859 0
34.950325 -12.754801 -0.036216754 0
35.060459 -12.758484 -0.036094584 0
35.1605 -12.757057 -0.038174342 0
35.262836 -12.734261 -0.037514981 0
35.484741 -12.77087 -0.036655791 0
35.510788 -12.706511 -0.034643736 0
35.692486 -12.764931 -0.03750759 0
35.740601 -12.729109 -0.038622592 0
35.871716 -12.73934 -0.034164924 0
35.953968 -12.725523 -0.035993446 0
36.035625 -12.747329 -0.039231472 0
36.15498 -12.75351 -0.037409674 0
36.246021 -12.769523 -0.039219372 0
36.476631 -12.726813 -0.036471259 0
36.682587 -12.769005 -0.037319064 0
36.892239 -12.749897 -0.037000168 0
36.905228 -12.727814 -0.036786847 0
37.094639 -12.771433 -0.037442803 0
37.14822 -12.774902 -0.037262939 0
37.428299 -12.702924 -0.037376553 0
37.571007 -12.74369 -0.036696903 0
37.68116 -12.713086 -0.03583248 0
37.932388 -12.727474 -0.036386907 0
38.175728 -12.748324 -0.037341144 0
38.42561 -12.731972 -0.038027573 0
38.633156 -12.781096 -0.037857231 0
39.17765 -12.793024 -0.03682825 0
39.419315 -12.705638 -0.0382859 0
40.211361 -12.754163 -0.036628228 0
40.503284 -12.706605 -0.038141325 0
40.730099 -12.774534 -0.0378596 0
40.999622 -12.772669 -0.037835706 0
41.101738 -12.706821 -0.037263121 0
41.260864 -12.738012 -0.037920047 0
43.48877 -12.732019 -0.037301019 0
43.526417 -12.742488 -0.038639758 0
44.487331 -12.7009 -0.037841354 0
45.746304 -12.76642 -0.036477305 0
46.878586 -12.740318 -0.037969146 0
12.414228 -12.609592 -0.024780842 0
12.576555 -12.653765 -0.00081217586 0
12.644072 -12.663064 -0.02790546 0
14.830174 -12.693007 -0.036915131 0
15.28598 -12.679099 -0.036052138 0
15.483556 -12.643663 -0.038880903 0
15.847883 -12.690291 -0.036847562 0
16.567181 -12.649871 -0.036694139 0
16.931881 -12.637294 -0.037438735 0
17.081966 -12.679119 -0.038449869 0
17.154623 -12.643645 -0.036527127 0
17.950624 -12.625677 -0.038059879 0
18.043015 -12.674404 -0.03742563 0
18.147892 -12.612347 -0.038219169 0
18.243153 -12.631771 -0.037341226 0
18.359858 -12.638688 -0.03675798 0
18.421026 -12.677313 -0.035954699 0
18.544552 -12.62197 -0.038393233 0
18.731327 -12.646791 -0.034419093 0
18.904694 -12.671764 -0.037250787 0
19.17004 -12.634056 -0.037047468 0
19.435469 -12.663697 -0.037788719 0
19.649031 -12.666706 -0.038405433 0
19.77235 -12.625857 -0.033967074 0
19.845036 -12.645424 -0.037024152 0
19.952374 -12.64654 -0.038102504 0
20.046768 -12.675735 -0.039435949 0
20.164207 -12.626547 -0.036323421 0
20.281694 -12.657841 -0.035669025 0
20.419867 -12.657115 -0.036953706 0
20.571724 -12.643551 -0.038770936 0
20.653883 -12.661366 -0.038004961 0
20.747917 -12.623611 -0.037580635 0
20.84627 -12.667038 -0.036923721 0
20.945654 -12.651029 -0.037038896 0
21.066088 -12.660293 -0.037433233 0
21.185589 -12.629845 -0.035194676 0
21.237524 -12.659649 -0.038393982 0
21.347242 -12.670075 -0.036455885 0
21.449335 -12.668804 -0.039109219 0
21.562271 -12.657609 -0.037505969 0
21.643599 -12.627697 -0.037288781 0
21.72364 -12.678255 -0.036543343 0
21.834114 -12.647758 -0.037176181 0
21.962599 -12.657887 -0.03362187 0
22.051702 -12.646587 -0.036750872 0
22.144363 -12.644346 -0.035849378 0
22.237337 -12.637775 -0.038854886 0
22.31925 -12.632075 -0.038067669 0
22.493866 -12.609406 -0.034735698 0
22.528252 -12.669068 -0.038357444 0
22.753269 -12.661633 -0.037802339 0
22.855946 -12.647117 -0.03812189 0
23.170198 -12.651855 -0.036135569 0
23.271919 -12.642414 -0.036934022 0
23.370153 -12.645146 -0.03840958 0
23.462311 -12.680176 -0.035937596 0
23.553633 -12.636965 -0.037472494 0
23.670219 -12.657179 -0.040230162 0
23.861731 -12.642914 -0.039437037 0
23.956467 -12.625299 -0.040359229 0
24.128809 -12.648936 -0.036944523 0
24.274733 -12.672751 -0.036250129 0
24.334856 -12.64924 -0.036266629 0
24.405323 -12.640179 -0.041069243 0
24.576317 -12.672678 -0.036892094 0
24.649799 -12.636324 -0.035861965 0
25.054964 -12.665074 -0.037301883 0
25.128239 -12.665762 -0.035345711 0
25.337273 -12.672418 -0.022641378 0
25.452908 -12.6436 -0.024423512 0
25.555891 -12.645347 -0.036463235 0
25.633154 -12.638288 -0.037457839 0
25.736336 -12.634062 -0.037625201 0
25.886406 -12.63732 -0.036090419 0
25.94088 -12.636164 -0.038134038 0
26.160645 -12.650413 -0.035965472 0
26.239101 -12.667086 -0.036814757 0
26.373903 -12.668925 -0.037345544 0
26.431137 -12.624367 -0.037383027 0
26.570585 -12.656113 -0.036067907 0
26.646069 -12.67767 -0.036525279 0
26.733019 -12.651348 -0.03743178 0
26.825134 -12.666194 -0.037905365 0
26.949135 -12.634552 -0.037552305 0
27.007994 -12.628207 -0.035472516 0
27.148224 -12.639465 -0.037542403 0
27.342892 -12.626589 -0.0360367 0
27.465414 -12.650017 -0.036788817 0
27.666893 -12.62658 -0.037665159 0
27.724045 -12.660727 -0.035431683 0
27.847286 -12.650141 -0.036640063 0
27.909344 -12.66045 -0.035693571 0
28.066498 -12.643887 -0.037914809 0
28.14772 -12.648791 -0.041421879 0
28.237398 -12.647893 -0.037828259 0
28.381731 -12.653179 -0.038030263 0
28.467768 -12.65305 -0.037539806 0
28.542721 -12.670552 -0.038421616 0
28.64176 -12.661761 -0.03715568 0
28.72311 -12.609283 -0.034970526 0
28.864822 -12.656004 -0.036581565 0
28.945587 -12.658717 -0.037045658 0
29.027006 -12.657111 -0.038450561 0
29.294458 -12.618588 -0.041242674 0
29.332447 -12.665151 -0.038988329 0
29.449425 -12.638717 -0.037304636 0
29.551521 -12.656051 -0.0387403 0
29.666992 -12.652493 -0.037758619 0
29.751299 -12.64008 -0.038512759 0
29.887646 -12.64286 -0.037593238 0
29.947136 -12.632043 -0.037633315 0
30.026241 -12.647082 -0.037412547 0
30.177174 -12.645344 -0.036611468 0
30.216766 -12.650692 -0.039209023 0
30.357851 -12.658664 -0.038263883 0
30.423407 -12.652278 -0.036937729 0
30.587353 -12.660773 -0.037340578 0
30.678658 -12.639635 -0.038174517 0
30.756336 -12.669443 -0.037657626 0
30.861982 -12.649993 -0.036350477 0
30.948174 -12.657787 -0.037439868 0
31.049732 -12.646304 -0.037121825 0
31.283001 -12.6348 -0.03769327 0
31.364677 -12.64682 -0.037784591 0
31.453445 -12.660656 -0.03685277 0
31.67857 -12.663897 -0.036213864 0
31.937815 -12.645885 -0.036220666 0
32.030144 -12.666064 -0.038375523 0
32.147522 -12.656824 -0.038037546 0
32.377579 -12.645164 -0.039867654 0
32.59166 -12.640257 -0.038100988 0
32.778492 -12.671985 -0.037123863 0
32.825558 -12.6432 -0.037768845 0
33.065018 -12.634195 -0.036985554 0
33.235504 -12.658276 -0.037362192 0
33.317745 -12.655744 -0.03812303 0
33.467892 -12.675842 -0.038119812 0
33.531776 -12.629966 -0.039353821 0
33.657951 -12.650277 -0.037656829 0
33.747826 -12.644755 -0.039063867 0
33.852715 -12.640067 -0.037938673 0
33.950413 -12.640663 -0.036808584 0
34.162857 -12.64395 -0.039279073 0
34.239101 -12.656609 -0.034982584 0
34.342854 -12.645825 -0.038745459 0
34.473846 -12.673347 -0.03583584 0
34.564034 -12.670877 -0.035604052 0
34.656078 -12.64645 -0.038740773 0
34.733032 -12.655932 -0.037306637 0
34.861782 -12.661258 -0.038322177 0
34.973244 -12.635319 -0.037645161 0
35.033936 -12.659154 -0.037838798 0
35.180206 -12.652279 -0.03519541 0
35.292747 -12.682497 -0.037857573 0
35.333897 -12.64755 -0.037497398 0
35.492729 -12.685949 -0.035830073 0
35.552002 -12.650042 -0.037735701 0
35.756302 -12.656273 -0.038578209 0
35.931198 -12.645017 -0.036053702 0
36.006378 -12.637396 -0.034823705 0
36.118565 -12.636464 -0.036067169 0
36.276772 -12.644413 -0.037251391 0
36.502003 -12.661232 -0.036423277 0
36.666054 -12.674381 -0.036735892 0
36.73616 -12.655971 -0.037300773 0
36.933968 -12.650553 -0.037584148 0
37.160191 -12.661751 -0.03712159 0
37.56572 -12.666113 -0.037146404 0
37.720688 -12.609698 -0.037343785 0
37.97802 -12.627446 -0.037996955 0
38.235237 -12.654381 -0.037582051 0
38.448044 -12.661136 -0.037758105 0
38.648529 -12.665027 -0.037955001 0
39.202797 -12.639414 -0.037779376 0
39.678856 -12.674161 -0.03729216 0
39.788982 -12.673166 -0.037774116 0
39.952164 -12.64974 -0.036944386 0
40.248466 -12.603841 -0.037447367 0
40.412849 -12.611959 -0.037537027 0
40.768982 -12.665973 -0.03780153 0
41.035114 -12.62227 -0.037562564 0
41.668201 -12.676012 -0.037890766 0
42.339539 -12.627513 -0.037173774 0
43.45256 -12.609978 -0.036786914 0
43.666584 -12.609698 -0.038037322 0
44.086227 -12.658192 -0.037371643 0
44.293751 -12.638759 -0.037655868 0
45.513206 -12.682068 -0.038090188 0
46.339226 -12.61488 -0.037359841 0
46.621956 -12.682178 -0.038295161 0
12.125183 -12.512999 -0.023826992 0
12.365622 -12.573565 -0.0064712903 0
12.494699 -12.555923 -0.036834192 0
12.514518 -12.557545 -0.037898473 0
12.751148 -12.565706 -0.038318943 0
14.744916 -12.551607 -0.03632462 0
15.213015 -12.594055 -0.038585342 0
15.447577 -12.537724 -0.036669683 0
15.525224 -12.591955 -0.037916854 0
15.811759 -12.540195 -0.036735486 0
16.143677 -12.572218 -0.034690276 0
16.456131 -12.520149 -0.035073534 0
16.50783 -12.588594 -0.036591232 0
16.845587 -12.542168 -0.038320679 0
17.056341 -12.538916 -0.038685523 0
17.609838 -12.572773 -0.038203727 0
17.774784 -12.512906 -0.037592001 0
17.831837 -12.552904 -0.038060762 0
17.90489 -12.572851 -0.035330746 0
18.074673 -12.522692 -0.036284521 0
18.1315 -12.562992 -0.035376471 0
18.244026 -12.548114 -0.03716293 0
18.350048 -12.564232 -0.036617089 0
18.673412 -12.543781 -0.035985857 0
19.112749 -12.546292 -0.035222694 0
19.234304 -12.525751 -0.036352791 0
19.350704 -12.551346 -0.037452068 0
19.442383 -12.512432 -0.038231626 0
19.567093 -12.517841 -0.037582986 0
19.625483 -12.57299 -0.036695652 0
19.728357 -12.558111 -0.036958963 0
19.85025 -12.532268 -0.037225135 0
19.929155 -12.548896 -0.037511338 0
20.158607 -12.553765 -0.035612792 0
20.216555 -12.598959 -0.035899244 0
20.390717 -12.550919 -0.037889704 0
20.440741 -12.525002 -0.041259043 0
20.530975 -12.546974 -0.040655222 0
20.633778 -12.548105 -0.035784706 0
20.736036 -12.516122 -0.035601743 0
20.856625 -12.551292 -0.037676517 0
20.91781 -12.590962 -0.037597872 0
21.037888 -12.531883 -0.03581937 0
21.148523 -12.537301 -0.034135267 0
21.22117 -12.586533 -0.036539227 0
21.347277 -12.524485 -0.036710754 0
21.400108 -12.594882 -0.037947673 0
21.56675 -12.538324 -0.036801018 0
21.646202 -12.596432 -0.038064972 0
21.768089 -12.551067 -0.038162373 0
21.862221 -12.535571 -0.036218055 0
21.956207 -12.561659 -0.037588015 0
22.036694 -12.541769 -0.036823269 0
22.149467 -12.539787 -0.038290471 0
22.242252 -12.576616 -0.036585025 0
22.369482 -12.573674 -0.039121449 0
22.462955 -12.541277 -0.034813907 0
22.682467 -12.533007 -0.038541399 0
22.726192 -12.583508 -0.034428604 0
22.937126 -12.580948 -0.037624985 0
23.023041 -12.520761 -0.039093573 0
23.118971 -12.549763 -0.036892563 0
23.216049 -12.550026 -0.036447644 0
23.361574 -12.560404 -0.036955286 0
23.47192 -12.528315 -0.0369059 0
23.633307 -12.568934 -0.036388975 0
23.726692 -12.533186 -0.038155928 0
23.843395 -12.546539 -0.038610265 0
24.057516 -12.549033 -0.038377244 0
24.178061 -12.578663 -0.03574473 0
24.228975 -12.510055 -0.035158303 0
24.449511 -12.569804 -0.03733727 0
24.54566 -12.531836 -0.03946168 0
24.635498 -12.540819 -0.035877533 0
24.737366 -12.558784 -0.036880374 0
25.064959 -12.593867 -0.03736626 0
25.168114 -12.571197 -0.034920722 0
25.235783 -12.524143 -0.037901014 0
25.358074 -12.567995 -0.019683545 0
25.457638 -12.537275 -0.021740213 0
25.538816 -12.567848 -0.038761027 0
25.640778 -12.552843 -0.0363441 0
25.772846 -12.55649 -0.036101736 0
25.858109 -12.531348 -0.036363389 0
25.944889 -12.553864 -0.036691785 0
26.018169 -12.543593 -0.03634949 0
26.137365 -12.547198 -0.036557723 0
26.218906 -12.557197 -0.037135646 0
26.378998 -12.559499 -0.038917083 0
26.453518 -12.561726 -0.038006239 0
26.5616 -12.560647 -0.03698964 0
26.661871 -12.566648 -0.034970138 0
26.739658 -12.55304 -0.037896704 0
26.850792 -12.53057 -0.037426889 0
26.926643 -12.537527 -0.037625894 0
27.048788 -12.551665 -0.039185017 0
27.184202 -12.553563 -0.037917331 0
27.27936 -12.544285 -0.036380678 0
27.312059 -12.514497 -0.035429813 0
27.427805 -12.550093 -0.038160287 0
27.634624 -12.527942 -0.037605882 0
27.732336 -12.548948 -0.03744366 0
27.842022 -12.557742 -0.037503008 0
28.055738 -12.563576 -0.037907481 0
28.172745 -12.552769 -0.039356105 0
28.263763 -12.558567 -0.034919772 0
28.300354 -12.512132 -0.036843296 0
28.427225 -12.545652 -0.037294257 0
28.57077 -12.551 -0.037242409 0
28.609026 -12.514132 -0.037033699 0
28.77445 -12.517431 -0.035771798 0
28.86182 -12.572487 -0.036086246 0
28.969627 -12.555914 -0.037793595 0
29.030529 -12.553967 -0.038098041 0
29.264179 -12.534512 -0.03756649 0
29.38331 -12.548861 -0.03714098 0
29.41927 -12.524405 -0.037640229 0
29.58963 -12.552724 -0.03867317 0
29.681986 -12.534166 -0.036665708 0
29.731895 -12.542414 -0.036618173 0
29.833914 -12.559475 -0.036600303 0
29.961554 -12.535511 -0.038355801 0
30.050991 -12.545289 -0.035645746 0
30.157507 -12.545574 -0.035644323 0
30.252951 -12.559761 -0.037225839 0
30.439415 -12.553916 -0.03805422 0
30.569448 -12.512082 -0.037414484 0
30.635279 -12.568568 -0.037328888 0
30.740492 -12.55537 -0.037903745 0
30.877474 -12.540082 -0.037010949 0
30.968676 -12.574724 -0.03713695 0
31.064087 -12.537102 -0.038812116 0
31.15152 -12.506949 -0.038676813 0
31.254137 -12.544477 -0.036538407 0
31.337675 -12.557952 -0.038678374 0
31.441492 -12.561082 -0.037798941 0
31.505505 -12.525339 -0.038422793 0
31.705076 -12.582232 -0.037869293 0
31.923136 -12.542043 -0.037421506 0
32.040565 -12.555032 -0.036568277 0
32.171352 -12.539412 -0.038142394 0
32.352551 -12.549571 -0.036244031 0
32.436287 -12.533323 -0.037447713 0
32.58078 -12.539736 -0.037159655 0
32.786514 -12.588692 -0.037655167 0
32.807602 -12.544636 -0.039464004 0
33.04776 -12.555672 -0.039941274 0
33.105976 -12.514042 -0.037682246 0
33.240906 -12.570299 -0.038334042 0
33.342655 -12.554883 -0.03940703 0
33.43391 -12.562649 -0.038115881 0
33.535503 -12.54555 -0.037120339 0
33.642189 -12.546571 -0.035581026 0
33.752029 -12.567014 -0.03765386 0
33.830147 -12.544531 -0.038406096 0
33.964092 -12.551464 -0.036649566 0
34.014679 -12.56085 -0.040860485 0
34.190128 -12.545135 -0.034545574 0
34.239017 -12.532979 -0.039343044 0
34.353149 -12.580429 -0.039821804 0
34.430023 -12.536068 -0.037027668 0
34.555218 -12.537656 -0.037158977 0
34.654858 -12.56555 -0.03690654 0
34.743008 -12.548579 -0.036824655 0
34.846283 -12.532614 -0.03768076 0
34.92625 -12.550484 -0.038477726 0
35.073051 -12.59137 -0.03662423 0
35.122677 -12.534352 -0.036984134 0
35.26173 -12.567979 -0.037488706 0
35.371559 -12.569984 -0.037291445 0
35.434868 -12.537501 -0.037783023 0
35.576004 -12.558758 -0.03776272 0
35.619732 -12.527835 -0.038595363 0
35.774422 -12.574322 -0.036247395 0
35.827843 -12.522211 -0.037258592 0
35.97628 -12.553125 -0.036835618 0
36.036278 -12.535477 -0.036712196 0
36.162903 -12.540204 -0.038717978 0
36.232883 -12.540352 -0.039457366 0
36.306217 -12.519652 -0.035591934 0
36.527733 -12.564077 -0.03472022 0
36.630882 -12.538357 -0.035942081 0
36.748932 -12.543401 -0.037693113 0
36.95647 -12.556248 -0.036998011 0
37.017342 -12.500085 -0.035871454 0
37.178001 -12.556396 -0.035825498 0
37.202442 -12.539331 -0.034608886 0
37.439541 -12.592704 -0.035814047 0
37.526642 -12.527338 -0.036240105 0
37.75285 -12.504121 -0.038157184 0
37.997242 -12.517281 -0.036932115 0
38.227692 -12.521105 -0.037123695 0
38.467754 -12.553278 -0.038824175 0
38.657677 -12.522038 -0.037130821 0
38.717228 -12.580379 -0.038447272 0
39.433975 -12.551123 -0.03814891 0
39.701717 -12.520958 -0.037600178 0
40.537666 -12.555682 -0.038493127 0
40.770264 -12.51412 -0.037346028 0
41.321011 -12.590899 -0.038012899 0
41.482037 -12.567648 -0.037338663 0
41.879429 -12.597226 -0.037986286 0
43.429359 -12.58291 -0.037067134 0
45.045048 -12.591589 -0.037409529 0
45.262112 -12.588445 -0.038208503 0
45.756939 -12.508026 -0.035817545 0
46.078144 -12.571427 -0.037812352 0
47.179394 -12.56159 -0.038117185 0
64.433105 -12.598927 -0.037768476 0
67.634476 -12.536869 -0.037743259 0
68.105148 -12.577206 -0.0086600473 0
11.865841 -12.472722 -0.037309427 0
11.922199 -12.429984 -0.037647773 0
12.430138 -12.414817 -0.038035214 0
12.713219 -12.441235 -0.037532054 0
14.668332 -12.405343 -0.035001744 0
15.17159 -12.49081 -0.036903281 0
15.39976 -12.438483 -0.036366638 0
16.118198 -12.420427 -0.03394299 0
16.362022 -12.432941 -0.036865726 0
16.77063 -12.437893 -0.037511535 0
16.971859 -12.407133 -0.037358876 0
17.030163 -12.470379 -0.035628807 0
17.587448 -12.420094 -0.038259897 0
17.659388 -12.435002 -0.037861798 0
17.71686 -12.4743 -0.037685473 0
17.885052 -12.453239 -0.038038507 0
17.964489 -12.437284 -0.037685215 0
18.055779 -12.489466 -0.036743686 0
18.165943 -12.456665 -0.037139758 0
18.243603 -12.458708 -0.037535056 0
18.359684 -12.489955 -0.037034422 0
18.509151 -12.463236 -0.036024999 0
18.621296 -12.436655 -0.036702406 0
18.854536 -12.419026 -0.037829395 0
18.973591 -12.414253 -0.039103929 0
19.050047 -12.46201 -0.037473742 0
19.155235 -12.471143 -0.036705606 0
19.272003 -12.454392 -0.037768885 0
19.556637 -12.460566 -0.037651788 0
19.625244 -12.432663 -0.035629813 0
19.776312 -12.406568 -0.038128585 0
19.826609 -12.457317 -0.037367355 0
20.085623 -12.431239 -0.034834445 0
20.141926 -12.472219 -0.035801455 0
20.265759 -12.431839 -0.039712325 0
20.377151 -12.435501 -0.036756322 0
20.465883 -12.432849 -0.036963254 0
20.551023 -12.466374 -0.037380848 0
20.669418 -12.444345 -0.037333161 0
20.740446 -12.438124 -0.037628658 0
20.834745 -12.486258 -0.034790166 0
20.975861 -12.444124 -0.037887521 0
21.040829 -12.455212 -0.035892386 0
21.172062 -12.468527 -0.037421621 0
21.26984 -12.446425 -0.038866356 0
21.371353 -12.435217 -0.036515608 0
21.471813 -12.413164 -0.038913921 0
21.531071 -12.460625 -0.036074817 0
21.785128 -12.453497 -0.037257891 0
21.853281 -12.458338 -0.034392953 0
21.949659 -12.459994 -0.035656087 0
22.068462 -12.421548 -0.038575184 0
22.120354 -12.465021 -0.037061445 0
22.362869 -12.456257 -0.037002206 0
22.42152 -12.45126 -0.037420686 0
22.561331 -12.433752 -0.03890609 0
22.648773 -12.451565 -0.038346872 0
23.029974 -12.464543 -0.036694679 0
23.134171 -12.440437 -0.037145201 0
23.319702 -12.469911 -0.039625742 0
23.46706 -12.429701 -0.037629068 0
23.568111 -12.447306 -0.037354358 0
23.791075 -12.462227 -0.038956665 0
23.8403 -12.456106 -0.035081536 0
23.917633 -12.408746 -0.041288108 0
24.15929 -12.47438 -0.038283397 0
24.252287 -12.434319 -0.035896949 0
24.497917 -12.482938 -0.039401852 0
24.576086 -12.444828 -0.036947425 0
24.657564 -12.429499 -0.037054703 0
24.755722 -12.467113 -0.036335088 0
24.86076 -12.434059 -0.037558507 0
25.153374 -12.453832 -0.037593741 0
25.276163 -12.473983 -0.037658691 0
25.38258 -12.452748 -0.015170404 0
25.458097 -12.418524 -0.027177827 0
25.651123 -12.453477 -0.036407262 0
25.774841 -12.46175 -0.03708601 0
25.817541 -12.439136 -0.037538163 0
25.930908 -12.45439 -0.037752718 0
26.05131 -12.462448 -0.037542585 0
26.182991 -12.441117 -0.036609594 0
26.285381 -12.466167 -0.03747984 0
26.372816 -12.435452 -0.039017472 0
26.457571 -12.452802 -0.036428999 0
26.533325 -12.46946 -0.038750272 0
26.771336 -12.440723 -0.038121987 0
26.863045 -12.425754 -0.037573133 0
27.065207 -12.463184 -0.037039738 0
27.17067 -12.457466 -0.036733124 0
27.239994 -12.430305 -0.036977608 0
27.390284 -12.406908 -0.038351037 0
27.424795 -12.451843 -0.037461225 0
27.515682 -12.412851 -0.037909016 0
27.653831 -12.438015 -0.036529712 0
27.748472 -12.467338 -0.038094625 0
27.8412 -12.460591 -0.038901221 0
27.947765 -12.418859 -0.038331367 0
28.027168 -12.481408 -0.037720334 0
28.156487 -12.453189 -0.037990097 0
28.360954 -12.451925 -0.037431207 0
28.437819 -12.446266 -0.036180314 0
28.546198 -12.45275 -0.036547497 0
28.770657 -12.439268 -0.03535841 0
28.845446 -12.438956 -0.036858123 0
28.93965 -12.462113 -0.036823969 0
29.054506 -12.443706 -0.036844537 0
29.198307 -12.404049 -0.036771014 0
29.217701 -12.459862 -0.038706426 0
29.343187 -12.456478 -0.037906226 0
29.451242 -12.442326 -0.03806711 0
29.632227 -12.441607 -0.035816174 0
29.752876 -12.441372 -0.037216488 0
29.865555 -12.461723 -0.037077479 0
29.977982 -12.425998 -0.036879648 0
30.052862 -12.452306 -0.038558181 0
30.175476 -12.447595 -0.037107367 0
30.238043 -12.457677 -0.037328158 0
30.472206 -12.445139 -0.038462095 0
30.525888 -12.472345 -0.039051935 0
30.644402 -12.44542 -0.03650099 0
30.72508 -12.458026 -0.037618108 0
30.865793 -12.441998 -0.035655055 0
30.94018 -12.453213 -0.036837742 0
31.05891 -12.420934 -0.036493585 0
31.136251 -12.448712 -0.037215229 0
31.263683 -12.401812 -0.033892069 0
31.3267 -12.449165 -0.037168656 0
31.420502 -12.421589 -0.038513981 0
31.514915 -12.456348 -0.039326344 0
31.725788 -12.455935 -0.037765004 0
31.857292 -12.434755 -0.035912532 0
31.958971 -12.457201 -0.039045393 0
32.076008 -12.449792 -0.038146026 0
32.189545 -12.483105 -0.038707346 0
32.33852 -12.441483 -0.035557177 0
32.498611 -12.413761 -0.036873545 0
32.58429 -12.437372 -0.041068263 0
32.78809 -12.468067 -0.037715513 0
32.820061 -12.47678 -0.038511984 0
33.030716 -12.439163 -0.038467899 0
33.13382 -12.406487 -0.039523769 0
33.224327 -12.453407 -0.034968257 0
33.353939 -12.45163 -0.038707886 0
33.422493 -12.458387 -0.038681094 0
33.561054 -12.44577 -0.038392555 0
33.642578 -12.441742 -0.037251107 0
33.748516 -12.487349 -0.037729885 0
33.813114 -12.461475 -0.039115228 0
33.96154 -12.418419 -0.038046058 0
34.022152 -12.463268 -0.036519468 0
34.264011 -12.450248 -0.039422151 0
34.305992 -12.452028 -0.037168544 0
34.453651 -12.451147 -0.038508963 0
34.529758 -12.431927 -0.037718598 0
34.640388 -12.44222 -0.038042244 0
34.755547 -12.454187 -0.036342356 0
34.866249 -12.467476 -0.037405185 0
34.934647 -12.43279 -0.037024982 0
35.16785 -12.458811 -0.038545933 0
35.342369 -12.45031 -0.037099347 0
35.445236 -12.47843 -0.038137116 0
35.535385 -12.429126 -0.037568454 0
35.660378 -12.469521 -0.041264918 0
35.747166 -12.431396 -0.037293673 0
35.829216 -12.453757 -0.036526158 0
36.049442 -12.447311 -0.036948107 0
36.149086 -12.424292 -0.036358096 0
36.257923 -12.440293 -0.035616584 0
36.328037 -12.437345 -0.035181347 0
36.582787 -12.443039 -0.038377959 0
36.705067 -12.436616 -0.035963964 0
36.819199 -12.459545 -0.037546016 0
36.944122 -12.447603 -0.037704993 0
37.057373 -12.424653 -0.036871757 0
37.232655 -12.4594 -0.037232354 0
37.475063 -12.487594 -0.037536018 0
37.518837 -12.498059 -0.036429618 0
38.038418 -12.414155 -0.038668383 0
38.284176 -12.436163 -0.038480505 0
38.311523 -12.409681 -0.037023365 0
38.520245 -12.453174 -0.037791997 0
38.609734 -12.492593 -0.036560208 0
38.762417 -12.479631 -0.039270852 0
39.211975 -12.48434 -0.037580304 0
39.822582 -12.415585 -0.038227387 0
39.972195 -12.496413 -0.036745246 0
40.277439 -12.451859 -0.037785418 0
40.5625 -12.402912 -0.038238946 0
41.094177 -12.477316 -0.039647784 0
41.1306 -12.448822 -0.038043104 0
41.328331 -12.436438 -0.036790226 0
41.672726 -12.420354 -0.037808042 0
43.455425 -12.481071 -0.036932163 0
44.469837 -12.439839 -0.03685502 0
45.532867 -12.423495 -0.038162235 0
46.645752 -12.424805 -0.03783524 0
46.914806 -12.484729 -0.037924871 0
11.59514 -12.308011 -0.020802116 0
12.163918 -12.37456 -0.037160885 0
12.502939 -12.300949 -0.037920415 0
14.604532 -12.31542 -0.036262643 0
15.116938 -12.395076 -0.037327446 0
15.344923 -12.34272 -0.037266646 0
15.773684 -12.390535 -0.037041221 0
16.281824 -12.333251 -0.036188103 0
16.695213 -12.33417 -0.037300881 0
16.91795 -12.340423 -0.038450077 0
17.040512 -12.372829 -0.037226278 0
17.491358 -12.310843 -0.038369395 0
17.557987 -12.362171 -0.036089338 0
17.605408 -12.390902 -0.037129413 0
17.858583 -12.346428 -0.038721334 0
17.915436 -12.387685 -0.036974631 0
18.056644 -12.378672 -0.037709452 0
18.222712 -12.302235 -0.037534237 0
18.300495 -12.393378 -0.040240806 0
18.488436 -12.309999 -0.036895145 0
18.555565 -12.355824 -0.037365548 0
18.680229 -12.304656 -0.038036134 0
18.762314 -12.336269 -0.037947446 0
18.870239 -12.351542 -0.037177894 0
18.958651 -12.364415 -0.036963534 0
19.220146 -12.347372 -0.035780158 0
19.547329 -12.363791 -0.036421463 0
19.69706 -12.319943 -0.038544659 0
19.764828 -12.361089 -0.036124177 0
19.97674 -12.342997 -0.035704389 0
20.053265 -12.377584 -0.037410699 0
20.145956 -12.389691 -0.036177166 0
20.281904 -12.313233 -0.037390653 0
20.353477 -12.342931 -0.037316483 0
20.462393 -12.315619 -0.037868816 0
20.533724 -12.340424 -0.036347114 0
20.637854 -12.353168 -0.036049128 0
20.753021 -12.356919 -0.035942737 0
20.84605 -12.336808 -0.038383707 0
20.952702 -12.356756 -0.037351839 0
21.029589 -12.34166 -0.035779614 0
21.153881 -12.311403 -0.039721638 0
21.217787 -12.365843 -0.037783343 0
21.459076 -12.351017 -0.037938453 0
21.568214 -12.390894 -0.036493994 0
21.66843 -12.373653 -0.039337598 0
21.756878 -12.361851 -0.036215447 0
21.824665 -12.342525 -0.037706178 0
21.945835 -12.332535 -0.037140451 0
22.056734 -12.373583 -0.038253013 0
22.165722 -12.358429 -0.036209367 0
22.259537 -12.340261 -0.036707614 0
22.355225 -12.373188 -0.036034048 0
22.562891 -12.342732 -0.037271138 0
22.663284 -12.357661 -0.03639001 0
22.74239 -12.339427 -0.038119487 0
22.990324 -12.358699 -0.034759767 0
23.050871 -12.355083 -0.03729092 0
23.182541 -12.384639 -0.039870288 0
23.256199 -12.324751 -0.035935782 0
23.305986 -12.381673 -0.035927579 0
23.525496 -12.332825 -0.036115814 0
23.631699 -12.352499 -0.036410678 0
23.766541 -12.359936 -0.038040098 0
23.971931 -12.355043 -0.039350718 0
24.275003 -12.376825 -0.037499376 0
24.354612 -12.343195 -0.03957925 0
24.59931 -12.337757 -0.033790875 0
24.645435 -12.300552 -0.036248762 0
24.755064 -12.352442 -0.03730822 0
24.930046 -12.33934 -0.035212606 0
25.23172 -12.308072 -0.036891937 0
25.343582 -12.346015 -0.033023197 0
25.44071 -12.322943 -0.026962202 0
25.669741 -12.353737 -0.037010387 0
25.712585 -12.36662 -0.036334544 0
25.82151 -12.339345 -0.036946975 0
25.94256 -12.360514 -0.035869256 0
26.15659 -12.351545 -0.036540769 0
26.260637 -12.371416 -0.039080866 0
26.347073 -12.352573 -0.038208604 0
26.435692 -12.353641 -0.036620341 0
26.528952 -12.370472 -0.037117653 0
26.625443 -12.362332 -0.036331262 0
26.757618 -12.357355 -0.036591597 0
26.85166 -12.319462 -0.03799006 0
26.937347 -12.34249 -0.035361018 0
27.03997 -12.361807 -0.039300203 0
27.184469 -12.353578 -0.037437961 0
27.241394 -12.338015 -0.035361923 0
27.306019 -12.310131 -0.034807347 0
27.403496 -12.343418 -0.034314841 0
27.555508 -12.354139 -0.035710096 0
27.668606 -12.34808 -0.037697114 0
27.746906 -12.354564 -0.037750755 0
27.847321 -12.363713 -0.038091466 0
27.924122 -12.319632 -0.037060566 0
28.023674 -12.35343 -0.036937281 0
28.132582 -12.355675 -0.038797997 0
28.343599 -12.346334 -0.037225172 0
28.457947 -12.325363 -0.037669521 0
28.525738 -12.362942 -0.037803072 0
28.627497 -12.363023 -0.035874907 0
28.753487 -12.346506 -0.035960577 0
28.867571 -12.340846 -0.038157638 0
29.024689 -12.341598 -0.038239077 0
29.143484 -12.331672 -0.038594525 0
29.278603 -12.362759 -0.03685407 0
29.316265 -12.354378 -0.033078853 0
29.451727 -12.342935 -0.038379371 0
29.54248 -12.333263 -0.039084796 0
29.68483 -12.354733 -0.038235929 0
29.76388 -12.344082 -0.036784135 0
29.888891 -12.377042 -0.03700329 0
29.943699 -12.325426 -0.036906999 0
30.031094 -12.353156 -0.037912324 0
30.10825 -12.352368 -0.03692548 0
30.260172 -12.357799 -0.03923839 0
30.438553 -12.362451 -0.039547607 0
30.53549 -12.359319 -0.038636647 0
30.687605 -12.350349 -0.035338823 0
30.758732 -12.30763 -0.037258141 0
30.861801 -12.336497 -0.03819501 0
30.969309 -12.33122 -0.038270082 0
31.043337 -12.36553 -0.037794881 0
31.139044 -12.371125 -0.03818696 0
31.247789 -12.338127 -0.0378493 0
31.311981 -12.341097 -0.038785368 0
31.442301 -12.315672 -0.035144202 0
31.501682 -12.351534 -0.03583435 0
31.749456 -12.333921 -0.03718248 0
31.818459 -12.356153 -0.036364604 0
31.947081 -12.349608 -0.03759481 0
32.083679 -12.33876 -0.036497109 0
32.194794 -12.357255 -0.037603479 0
32.337704 -12.345641 -0.038821716 0
32.452774 -12.352766 -0.037375771 0
32.558708 -12.338611 -0.038122497 0
32.778427 -12.362407 -0.0381626 0
32.816059 -12.355458 -0.036928657 0
33.016106 -12.352239 -0.037544511 0
33.228928 -12.335764 -0.037454747 0
33.376675 -12.342919 -0.038140941 0
33.412014 -12.389315 -0.038822215 0
33.57938 -12.367953 -0.036607735 0
33.64307 -12.336411 -0.039436843 0
33.738018 -12.377314 -0.036015112 0
33.832874 -12.359078 -0.037836343 0
34.053131 -12.361526 -0.035471018 0
34.180157 -12.390841 -0.036693137 0
34.29356 -12.348822 -0.037542686 0
34.315876 -12.344669 -0.039363205 0
34.442085 -12.357506 -0.03617163 0
34.532486 -12.337817 -0.039279357 0
34.66478 -12.362711 -0.038359299 0
34.727512 -12.332313 -0.038622763 0
34.851761 -12.343565 -0.037177056 0
34.960232 -12.359189 -0.036697779 0
35.021687 -12.33075 -0.036532603 0
35.184628 -12.37709 -0.035314258 0
35.266247 -12.368261 -0.037385114 0
35.331013 -12.325052 -0.03631895 0
35.425377 -12.357331 -0.03634927 0
35.568417 -12.354513 -0.037163831 0
35.640213 -12.334409 -0.03646538 0
35.857483 -12.36059 -0.036879461 0
35.912575 -12.36553 -0.036378406 0
36.089363 -12.391891 -0.036460444 0
36.121841 -12.320833 -0.037561756 0
36.334835 -12.358161 -0.037528638 0
36.63015 -12.355078 -0.036972892 0
36.727386 -12.327574 -0.037708797 0
36.873867 -12.343195 -0.039274033 0
36.948666 -12.312606 -0.036813233 0
37.087547 -12.34493 -0.036412343 0
37.233162 -12.341908 -0.038510259 0
37.315132 -12.357559 -0.038011312 0
37.486565 -12.372723 -0.036158066 0
37.504223 -12.357212 -0.037908662 0
37.76553 -12.394137 -0.03676486 0
38.031761 -12.339238 -0.037725247 0
38.225437 -12.348508 -0.039352454 0
38.300831 -12.326546 -0.03685936 0
38.415234 -12.392018 -0.036997475 0
38.556126 -12.349042 -0.038142588 0
38.627102 -12.336674 -0.038264487 0
38.787098 -12.371486 -0.037662134 0
39.220161 -12.329244 -0.03753965 0
39.43795 -12.395782 -0.037323132 0
39.73135 -12.368253 -0.038743574 0
39.993698 -12.343298 -0.036919557 0
40.433098 -12.353261 -0.037629075 0
40.840282 -12.36492 -0.03848619 0
41.110184 -12.32241 -0.038113285 0
41.353333 -12.3344 -0.0381946 0
41.502731 -12.311993 -0.038069084 0
41.877861 -12.341133 -0.037811246 0
42.321838 -12.37162 -0.036604054 0
43.420898 -12.336865 -0.03754523 0
43.626469 -12.351133 -0.037278246 0
44.094231 -12.396465 -0.038197618 0
44.292679 -12.377504 -0.037791546 0
45.056705 -12.331537 -0.037491735 0
45.256687 -12.328138 -0.037245508 0
46.102852 -12.313999 -0.037877038 0
46.369698 -12.358418 -0.037502758 0
66.561935 -12.373039 -0.037745405 0
66.940979 -12.32972 -0.037723318 0
68.178604 -12.320891 -0.010262827 0
68.284943 -12.332467 -0.022174656 0
11.848127 -12.251441 -0.038009256 0
12.389473 -12.2652 -0.037265413 0
12.652231 -12.272123 -0.03857011 0
12.718881 -12.209357 -0.037254244 0
14.552749 -12.218472 -0.036059335 0
15.073815 -12.293382 -0.036405455 0
15.290947 -12.246254 -0.038278259 0
16.06521 -12.27444 -0.035898443 0
16.167524 -12.206285 -0.037674963 0
16.233389 -12.262804 -0.035045523 0
16.644835 -12.265126 -0.037507743 0
16.877686 -12.264533 -0.037187234 0
17.017767 -12.220381 -0.037163276 0
17.385483 -12.220314 -0.038005799 0
17.442535 -12.260575 -0.036808643 0
17.561445 -12.267865 -0.038878001 0
17.76351 -12.244264 -0.037697356 0
17.849438 -12.252769 -0.037708737 0
17.974968 -12.263043 -0.038273979 0
18.00592 -12.273039 -0.034753352 0
18.199509 -12.289939 -0.037268996 0
18.287512 -12.281949 -0.037736427 0
18.48164 -12.212208 -0.038068116 0
18.553658 -12.245083 -0.037479743 0
18.657204 -12.263376 -0.039477862 0
18.767227 -12.281567 -0.037865855 0
18.860645 -12.243141 -0.03573937 0
19.151548 -12.267124 -0.038791891 0
19.485146 -12.251932 -0.036523119 0
19.518164 -12.285677 -0.03897522 0
19.650635 -12.244195 -0.035635568 0
19.737774 -12.247379 -0.036439143 0
19.865952 -12.206937 -0.036081046 0
19.921124 -12.27515 -0.035715695 0
20.053341 -12.267416 -0.035428546 0
20.233374 -12.245598 -0.03843433 0
20.342768 -12.22463 -0.037209515 0
20.453039 -12.236145 -0.036504261 0
20.513025 -12.287664 -0.041416723 0
20.676943 -12.216166 -0.037001334 0
20.70789 -12.287437 -0.03593649 0
20.836809 -12.261111 -0.037156075 0
20.962536 -12.241322 -0.035316817 0
21.070333 -12.298336 -0.037244361 0
21.148489 -12.255971 -0.037721217 0
21.244886 -12.259048 -0.037797149 0
21.364382 -12.23024 -0.037428595 0
21.447174 -12.23314 -0.036620539 0
21.663656 -12.22762 -0.035645738 0
21.727638 -12.279261 -0.035633493 0
21.871002 -12.274264 -0.037568703 0
21.93499 -12.256238 -0.039607964 0
22.059126 -12.24609 -0.038038556 0
22.190989 -12.239306 -0.036331214 0
22.254005 -12.276908 -0.035105884 0
22.348057 -12.227808 -0.037368879 0
22.432743 -12.211013 -0.036855064 0
22.520802 -12.26554 -0.038427554 0
22.629274 -12.243294 -0.037072361 0
22.854836 -12.245373 -0.036294039 0
22.969261 -12.257506 -0.037799802 0
23.019011 -12.256897 -0.038903855 0
23.254807 -12.256801 -0.038990255 0
23.321993 -12.227835 -0.037264846 0
23.470903 -12.248447 -0.03891534 0
23.570938 -12.261475 -0.039276436 0
23.639748 -12.278167 -0.03494221 0
23.741402 -12.254692 -0.038512465 0
24.039318 -12.256927 -0.036702022 0
24.102457 -12.235793 -0.038763367 0
24.361597 -12.284914 -0.034613065 0
24.429636 -12.242313 -0.03805621 0
24.685791 -12.258099 -0.037150413 0
24.720472 -12.210962 -0.036596943 0
24.845123 -12.264691 -0.038909603 0
25.014261 -12.257296 -0.038359851 0
25.295338 -12.217172 -0.038339861 0
25.363834 -12.245028 -0.023572788 0
25.458693 -12.251719 -0.018340223 0
25.686481 -12.292879 -0.036404509 0
25.762697 -12.228607 -0.03686529 0
25.871538 -12.267718 -0.036637343 0
25.956348 -12.249174 -0.038456053 0
26.146015 -12.251366 -0.037159786 0
26.367712 -12.278244 -0.038906865 0
26.463272 -12.27021 -0.03740358 0
26.544743 -12.263447 -0.036567166 0
26.669266 -12.277723 -0.038024344 0
26.765398 -12.249547 -0.036292072 0
26.857161 -12.261436 -0.037783097 0
26.923227 -12.232585 -0.038000792 0
27.040483 -12.248797 -0.037164357 0
27.17922 -12.236177 -0.037478127 0
27.208891 -12.235806 -0.036439113 0
27.374405 -12.246051 -0.036948625 0
27.417503 -12.208221 -0.037187301 0
27.561653 -12.257047 -0.036456022 0
27.63089 -12.231982 -0.038888108 0
27.720161 -12.253877 -0.037881881 0
27.824722 -12.267582 -0.038187295 0
27.943172 -12.249843 -0.037814319 0
28.081167 -12.219468 -0.038841657 0
28.108471 -12.273051 -0.037578963 0
28.255426 -12.233648 -0.03664194 0
28.341967 -12.251418 -0.039701879 0
28.470659 -12.255282 -0.035508912 0
28.573227 -12.253667 -0.035440885 0
28.670416 -12.271592 -0.037091345 0
28.733232 -12.234275 -0.037313785 0
28.830441 -12.244555 -0.038486239 0
29.058435 -12.244372 -0.037363578 0
29.1343 -12.253052 -0.039355107 0
29.246943 -12.261382 -0.036095116 0
29.455322 -12.234999 -0.035927776 0
29.528643 -12.235329 -0.037359532 0
29.653595 -12.259174 -0.036357574 0
29.795389 -12.247174 -0.038299743 0
29.896629 -12.258623 -0.03226405 0
29.943748 -12.255287 -0.03718574 0
30.034868 -12.251999 -0.039873701 0
30.139639 -12.245245 -0.036725648 0
30.259001 -12.256385 -0.037099976 0
30.356117 -12.259854 -0.035075624 0
30.459631 -12.240948 -0.038295005 0
30.520081 -12.278252 -0.037177324 0
30.690657 -12.246192 -0.035983633 0
30.7062 -12.244539 -0.035225373 0
30.857199 -12.237241 -0.03709833 0
30.935566 -12.258368 -0.03851638 0
31.045971 -12.272481 -0.038426869 0
31.149359 -12.229223 -0.039525557 0
31.229488 -12.24431 -0.039358489 0
31.311823 -12.257018 -0.037561428 0
31.434679 -12.245753 -0.039003383 0
31.510761 -12.24781 -0.037179235 0
31.686445 -12.233908 -0.034719415 0
31.736752 -12.262941 -0.038766898 0
31.944771 -12.247959 -0.036568806 0
32.122086 -12.233524 -0.038919255 0
32.264214 -12.239388 -0.039214518 0
32.394104 -12.255763 -0.038829565 0
32.446808 -12.267195 -0.037321091 0
32.539566 -12.247577 -0.037919763 0
32.757736 -12.257099 -0.035203114 0
32.848965 -12.255782 -0.039671347 0
32.966496 -12.247226 -0.037303228 0
33.117455 -12.293992 -0.036148991 0
33.225426 -12.247711 -0.038330272 0
33.376312 -12.235079 -0.036974236 0
33.403561 -12.270436 -0.041712008 0
33.577061 -12.293026 -0.039265651 0
33.611771 -12.258987 -0.038331706 0
33.753525 -12.268 -0.037747208 0
33.855537 -12.257095 -0.038156431 0
33.983475 -12.275344 -0.038040392 0
34.082642 -12.269008 -0.037736036 0
34.13847 -12.244983 -0.037766997 0
34.278313 -12.239688 -0.03773234 0
34.3363 -12.261699 -0.036479075 0
34.477264 -12.243969 -0.03617572 0
34.569057 -12.248862 -0.035978854 0
34.671356 -12.251219 -0.037585612 0
34.758083 -12.245019 -0.03729194 0
34.851257 -12.237309 -0.039585605 0
34.942547 -12.239456 -0.037003178 0
35.078308 -12.253449 -0.037678275 0
35.250107 -12.265649 -0.03672782 0
35.330841 -12.237791 -0.036803585 0
35.464596 -12.273314 -0.036556318 0
35.535049 -12.234047 -0.036420137 0
35.661232 -12.234001 -0.037270542 0
35.754669 -12.266187 -0.03646988 0
35.862679 -12.263305 -0.03523425 0
35.962448 -12.239936 -0.037787631 0
36.0135 -12.254517 -0.037952088 0
36.162258 -12.243351 -0.036367711 0
36.274601 -12.282588 -0.037635319 0
36.374523 -12.270015 -0.036558658 0
36.406971 -12.205996 -0.037498489 0
36.625584 -12.237299 -0.03571216 0
36.73597 -12.217359 -0.038012534 0
36.937218 -12.214252 -0.037308462 0
37.111935 -12.263055 -0.035219017 0
37.23687 -12.231193 -0.037263412 0
37.377308 -12.244936 -0.039713856 0
37.484962 -12.244982 -0.036797635 0
37.786572 -12.286148 -0.036669735 0
38.341492 -12.223332 -0.038530022 0
38.404472 -12.236887 -0.036775138 0
38.578091 -12.240784 -0.036955304 0
38.716515 -12.269054 -0.038586885 0
38.819511 -12.266323 -0.037313953 0
39.448067 -12.241101 -0.03727958 0
39.722183 -12.211878 -0.036732424 0
40.304493 -12.299423 -0.038195454 0
40.596443 -12.251604 -0.039035168 0
40.769844 -12.25689 -0.038244788 0
40.850998 -12.209768 -0.036977172 0
41.380886 -12.290217 -0.038284034 0
43.421188 -12.222751 -0.037075542 0
45.791218 -12.251534 -0.036639262 0
11.82005 -12.13851 -0.037280139 0
